0.058188763 0.52209896 -0.28897712
0.08140277 0.18538742 -0.6038848
0.16430971 0.27843878 -0.42572743
-0.07323254 -0.34380308 -0.7065241
0.20713249 0.15533328 -0.08160857
-0.13865378 -0.0025156885 -0.18998086
0.072845645 0.26258644 0.383274
-0.06838848 0.45867983 -0.092041805
0.009631775 0.5312765 0.629738
0.13238297 0.30947426 -0.4827668
0.10162057 0.3724638 -0.036219917
0.21594377 0.21168226 -0.16604374
-0.022388576 0.22511545 -0.61819947
0.043857865 -0.09471145 0.073835716
-0.18569721 0.18959437 -0.38167098
0.04913487 0.32726124 0.47970805
-0.1160074 0.38969484 -0.29935336
0.17558594 0.20170349 0.09426124
0.20770386 0.24494201 -0.13773741
0.043518458 0.34492767 -0.51010865
0.068146184 0.42692003 -0.3407712
-0.07367743 -0.22471024 -0.013611225
-0.054185297 0.57400596 0.59526944
-0.123939045 -0.6942573 -0.62696224
0.16878939 0.18311092 -0.0013792631
-0.037438195 0.44152242 0.48558056
0.009144338 0.07941045 -0.41392213
-0.061397623 0.23333798 -0.59684277
-0.08285682 0.6362899 0.35425472
-0.08594787 0.623221 0.33962983
-0.030758575 0.22721203 0.45715237
0.05419922 0.37729168 -0.42452517
0.19276822 0.2580885 -0.2545573
0.060433853 -0.38646162 -0.71239847
-0.046423856 0.0030962196 0.17751299
0.14955238 0.27492476 0.12793712
-0.0694569 0.4637413 -0.09881161
-0.042295534 -0.070157185 -0.63246864
-0.11848076 -0.15559874 -0.56802875
0.10405568 -0.107365996 -0.49186322
-0.1917513 0.19664282 -0.043369155
0.13825981 -0.05621732 0.08954887
0.06614668 0.25182053 0.41039386
-0.15807949 -0.7361126 -0.59760445
-0.17762461 0.056021333 0.077782676
-0.11968531 0.33763763 0.009674366
0.058412332 0.20871249 0.4003686
0.15195245 0.30834663 -0.36144528
-0.04101082 -0.59410775 0.0040327706
-0.1212619 0.4323976 -0.25702032
0.08561894 0.39536014 0.025912166
0.21307859 0.159867 -0.111056454
0.02975128 -0.11928353 -0.5920978
-0.08109836 -0.6709028 -0.6607877
0.046768058 0.5389125 0.57571006
-0.14410836 0.030056193 -0.2724214
-0.1518504 0.011908967 0.041777227
-0.07042795 0.51979667 -0.172889
0.18894948 0.17596003 -0.41170332
-0.18569629 0.12463977 -0.27946413
0.08707606 -0.07005459 -0.47197384
0.15408099 0.20147692 -0.54101324
-0.20503983 0.22960313 -0.2422652
0.18353039 0.224414 -0.37666965
0.2019955 0.26551628 -0.18242039
0.09269144 0.41190544 -0.07715146
0.0036345928 0.6264938 0.5806525
-0.16534096 -0.71852523 -0.5431036
0.099675626 -0.024775447 -0.070110805
0.05482523 -0.57270515 -0.005529198
-0.17474455 0.20642637 0.08923453
-0.040963754 0.5913433 0.61575156
-0.15273274 0.023101902 -0.232665
0.17051639 0.08089814 -0.015008035
0.021352068 0.28482372 0.2825858
-0.033440076 -0.16957335 -0.648276
0.1698354 0.076462656 0.10897381
-0.02128436 0.09836701 -0.51903886
-0.07360341 0.53541285 -0.22678769
0.015440961 -0.040024415 0.09171046
-0.1633542 0.18448702 0.14443517
0.17698213 0.16458572 -0.30051586
-0.05720653 -0.09140673 0.098603696
-0.1715861 -0.013871459 -0.49393618
-0.15180087 0.011672937 -0.1971052
-0.11840687 -0.65154165 -0.6573868
0.034474205 -0.1937633 -0.6259082
-0.10304889 -0.71758145 -0.5313329
0.07514127 0.40333354 -0.004280888
0.007968769 0.09226176 -0.5695754
-0.11820936 0.01184397 -0.28497577
-0.01389451 0.39682743 -0.42635214
-0.12741594 -0.7263175 0.046555027
-0.05443386 -0.59378016 0.047600586
0.03939632 -0.042246472 0.1062312
0.0018044504 0.24877526 -0.6299928
-0.15399152 0.3032095 -0.395916
0.104791075 0.48591983 -0.22977178
0.038305555 -0.047962043 -0.13490239
0.08433986 -0.24648699 -0.6203306
-0.1726654 0.08561283 -0.017320666
0.13023159 -0.08844918 0.09193475
0.041592564 -0.1584476 0.024147032
-0.18801244 0.11600825 0.07823003
-0.0850935 -0.72047275 -0.52530897
0.053051274 0.388334 0.3948177
0.1347179 -0.74583477 -0.5932225
-0.041613568 -0.5040056 -0.65559566
0.16812575 0.026969584 -0.17418437
0.062897615 0.47434783 -0.10200408
0.054610413 -0.6120874 -0.6629039
0.016871633 0.5225872 0.5852333
-0.11810657 -0.006147753 -0.60288095
0.16250466 0.30077162 -0.29777828
0.06656675 -0.5884616 -0.62488556
-0.13851011 0.28020296 0.05060187
-0.03401388 -0.04848652 -0.1911344
-0.06460666 -0.51226014 0.00011153528
-0.0471376 -0.19465517 0.004982416
-0.13839059 0.35592175 -0.10562665
0.05708657 -0.4820209 -0.008077263
0.03635795 -0.24251705 -0.6355165
0.20108102 0.26744732 -0.18540628
-0.16956311 0.07806549 -0.41770428
-0.070965454 0.45897415 -0.095870174
-0.14221904 0.23089658 0.18851848
-0.043197483 -0.18407978 -0.6707524
0.033971444 -0.027064178 -0.04082097
0.0640703 -0.55412734 -0.6363661
-0.17420399 0.048418257 -0.4983746
0.02380523 0.55520993 -0.2783197
-0.20710778 0.24618441 -0.2098743
0.08156253 -0.17404637 -0.54972273
0.06991699 0.4547389 -0.3263486
-0.038539436 0.52929795 0.6336487
0.026894059 0.60782325 0.5637928
-0.13661808 -0.010047599 -0.42966935
-0.09495148 0.46146432 -0.29231605
-0.02707753 0.38879555 -0.4302658
0.07279186 -0.14381945 0.094454765
-0.02647728 0.5034193 -0.09972323
0.04933952 0.3246194 0.2061091
0.19644739 0.106332734 -0.2464863
-0.0046984237 0.34795287 0.20253853
0.05025649 -0.37656045 -0.72256315
0.0813543 0.58893377 0.45665526
0.070134915 -0.6222915 -0.60869753
-0.073966466 0.41130468 -0.04380753
-0.0841098 -0.059843108 0.010144224
-0.01132111 0.26231992 0.48520583
0.07436732 0.3717261 -0.41222233
0.047402177 0.2815822 0.30715787
-0.038439687 0.49213356 0.48642185
0.14775291 0.31500345 -0.36061314
-0.0051881354 0.4433355 0.083647095
0.18130533 0.09079613 -0.46289358
0.10586472 0.4437775 -0.14696164
0.07494852 -0.3913291 -0.6889363
0.030871043 -0.023069898 -0.28709987
0.07200627 0.056149818 -0.42848396
0.052752607 0.19464462 0.39881137
-0.16978493 0.26686898 -0.3880987
0.01599617 0.007233335 -0.56371385
-0.0293138 -0.029752608 -0.012227064
-0.1640115 0.331941 -0.1504558
0.03842894 -0.5632563 -0.0026568854
-0.03883456 0.2833643 0.4797772
-0.1376374 -0.11557396 -0.5453177
0.101567 -0.6734195 -0.65954876
-0.07548385 0.034337893 -0.35064343
-0.13513927 0.33944917 -0.32395646
0.19917512 0.1686472 -0.2644336
0.110364676 -0.10210362 -0.615096
-0.028195638 -0.46260494 -0.6886747
0.11829611 0.35589027 -0.05637413
-0.019891752 0.30961132 -0.5673471
0.13280691 -0.012919096 0.030051371
0.119403526 0.3420396 -0.40888578
0.06548877 0.55204725 0.52132785
-0.028449971 -0.27361172 -0.6933638
0.09844994 -0.6858719 -0.64909667
0.075512044 0.039341364 0.18833905
-0.17395133 -0.7431294 -0.57013184
0.032428015 0.5751898 0.6502857
-0.17449352 0.097592406 0.10945055
0.047324326 0.58641404 0.5740629
0.0855363 0.37646213 0.086156726
0.018136894 0.5160304 0.6095492
0.04603159 -0.71347445 0.06959607
0.18967772 0.18594775 -0.445243
0.19556329 0.105364114 -0.2482083
0.13996013 0.15841602 -0.5715596
-0.07038557 0.40671355 -0.015685976
-0.053079497 0.50187767 0.3922587
-0.047990628 0.30119896 0.22577341
-0.01008203 -0.045520067 -0.22829905
-0.1883703 0.1499442 -0.4645629
-0.11000383 -0.611275 -0.6338242
-0.07183554 0.27467874 0.36633193
0.010386565 -0.0044251336 0.18485303
0.017589629 0.03118222 -0.59673053
0.051148374 -0.038860753 -0.22925843
-0.12634408 0.36046696 -0.08311878
0.11347696 -0.016800025 -0.06707311
-0.02260343 0.38311926 0.5017328
-0.05664126 -0.6050735 -0.6671252
0.05626549 0.3769886 0.46808723
0.040058646 -0.041875355 -0.52561116
-0.050445434 0.4712299 0.46260884
0.05243136 -0.7360538 0.13171524
0.124018006 0.25004587 -0.5482109
0.1855813 0.12991299 -0.2835028
0.012902844 0.20094824 -0.6543271
-0.053288 -0.41055065 0.029961048
-0.12113344 0.34794113 -0.35517564
0.091018476 -0.74659896 -0.564452
-0.01817593 -0.35311824 -0.7116398
0.15543704 0.15052402 -0.55554014
-0.20126252 0.13189846 -0.24842305
-0.08126981 -0.7438412 -0.6069958
-0.18402688 0.12202822 -0.4252898
0.050507832 0.57711256 0.62165457
-0.065907255 -0.5876068 -0.0032921657
-0.033360653 0.5084483 0.36532924
0.004665823 -0.02622947 -0.6574326
-0.16094287 0.25616828 0.095365025
0.1527472 0.004538519 -0.12907839
-0.030180633 -0.24218117 -0.66915107
0.042240318 -0.24004 0.049025405
-0.07803078 0.52626723 -0.25381812
-0.16586663 0.031090654 -0.06821094
-0.078315705 -0.3604504 -0.67680967
0.103507206 0.4839449 -0.24772254
-0.079949416 -0.0747161 -0.6329706
-0.17017788 0.30578983 -0.10130355
-0.18084507 0.040086113 -0.13450482
0.0473078 -0.09694645 0.083647266
-0.1954435 0.068778366 -0.17138973
0.09500062 0.295438 0.20045331
-0.099655405 0.4158077 -0.31074604
0.09952317 -0.23485938 0.04601163
0.18616955 0.102024704 0.086830534
0.03952725 -0.17505199 0.03286551
-0.0062694456 0.14994442 -0.58638334
-0.030637264 -0.2337085 -0.656304
0.16275635 0.31292924 -0.09336485
-0.06764034 -0.7345126 -0.54575443
0.0761483 -0.6682606 -0.58825445
0.11426588 -0.72108644 0.112245575
-0.07226833 -0.00088987063 -0.30877534
-0.13297696 0.40568155 -0.19896285
-0.0862255 0.3907772 -0.022451894
0.15432781 0.21983188 -0.5310982
0.06649448 -0.6842232 0.016903432
0.1486557 0.028357865 -0.25829083
-0.069693774 0.26691517 0.33159953
-0.01992022 0.41287807 -0.38849202
-0.12505004 -0.7033243 0.07406308
0.13389088 0.37635174 -0.28060398
0.14565188 0.26577696 0.024113484
0.031655893 0.35259876 -0.50836843
-0.09816474 0.26552895 0.22307512
0.049405802 0.07095505 -0.39773956
0.077442676 0.60952723 0.33295894
0.06804795 -0.5107984 -0.64742064
0.13204458 -0.09480942 0.028473305
-0.100756034 0.15284947 -0.6020373
-0.13596079 -0.04955466 -0.5880078
-0.16446255 -0.74607533 -0.5228574
-0.11398353 0.4319083 -0.15379627
0.07487996 -0.22124763 -0.66742164
-0.049562465 -0.11458387 0.08729083
0.19110784 0.24086417 -0.065600514
-0.050437104 -0.014648265 -0.29514313
0.10105356 -0.09860078 -0.62681425
0.09183692 -0.74368054 -0.6228339
-0.14471945 -0.013906661 0.08020834
0.13927393 0.32750583 -0.35186628
-0.04341671 -0.22033308 -0.61384255
0.032170746 -0.23534724 -0.6508891
-0.17900103 0.15894583 -0.015361112
-0.0077271904 0.40617055 0.5043045
-0.08580514 -0.6628646 0.006470116
-0.12303579 -0.094007745 0.020176245
-0.04140518 -0.6783097 0.04558145
0.085218154 0.36441302 -0.4167686
-0.08602867 -0.06521178 -0.6284925
-0.14650972 -0.028545808 0.067033455
0.05420384 -0.64929974 0.009266481
0.029589796 0.5279907 0.53020126
0.17673096 0.15144907 -0.5168084
0.18165551 0.22917888 -0.36465487
-0.041539427 -0.06288841 0.09398001
-0.021141948 -0.31530014 -0.73255944
-0.071044825 0.5318613 -0.25771952
-0.16653682 0.05300877 0.016688256
-0.05635926 -0.027393896 -0.2662353
-0.09146612 -0.16059461 -0.6348393
0.059941128 0.17252833 0.36161175
0.04146251 -0.50364006 -0.6532565
-0.007312562 0.2573876 -0.6206547
-0.0455586 -0.085913636 0.07934353
-0.19081794 0.28877777 -0.18556753
-0.13091934 0.10893529 0.19864346
0.13892709 0.20846592 -0.5544815
0.038825538 -0.5949155 0.0062169745
-0.1356997 0.14210169 0.20372498
-0.06118126 0.38093874 0.44983667
-0.04636208 0.58675146 0.5953808
0.111098416 -0.12895161 0.091882154
-0.1895089 0.18769969 -0.43507278
-0.1895676 0.059244707 -0.10543094
-0.091881424 -0.028885312 -0.06363104
-0.03375507 -0.04926404 -0.16239364
0.0729917 0.51027524 -0.16411966
0.09125183 0.2371834 0.24533452
0.011591891 0.24792537 -0.6274527
0.00014184041 0.03417535 -0.36312965
-0.026487315 -0.115874715 -0.62423724
0.007806851 0.54805815 -0.14437973
-0.18523319 0.18454179 -0.28677157
-0.014798422 0.51140773 0.68405926
-0.0821955 0.21767002 0.31951115
0.07648747 0.6003198 0.41860095
0.033858337 -0.04367422 0.029191785
-0.14174147 0.37893778 -0.24140254
-0.115425944 -0.06393512 0.11438964
0.092573725 0.12216343 0.23077236
-0.15127525 0.020399494 -0.5689393
-0.06388576 -0.72728986 0.15112072
-0.04251758 -0.20889373 -0.6801489
0.009559187 0.2888588 0.29196826
-0.0398701 -0.4885488 -0.6590158
0.068916656 0.25241402 -0.58650416
-0.109709606 -0.00012757594 -0.27257589
0.039458927 -0.16667485 0.033165537
-0.14138386 0.11605784 0.17918292
0.10433151 0.4868494 -0.22975379
0.009698534 0.05481143 -0.5752628
0.18161769 0.09567557 -0.4769603
-0.08029481 -0.020432256 -0.62192154
0.07800817 0.35896957 -0.44905904
0.14083031 0.2641194 -0.5200366
0.08321327 -0.33936986 -0.68877167
-0.11494941 -0.039919544 0.016947368
-0.06829558 0.34384868 -0.49384925
0.20676929 0.20516671 -0.085435085
-0.091339044 0.64090884 0.31983218
0.05146763 -0.6448602 0.009997781
0.0049094497 0.3933558 0.16313589
0.020393658 0.5530541 0.35195726
0.050604433 0.53712255 -0.16605993
-0.019366918 0.50537026 0.6233645
-0.02938593 0.6346591 0.52997595
-0.13869609 -0.10899573 0.04286037
0.07743233 0.0557771 -0.42186674
-0.18031912 -0.745422 -0.54466665
-0.14701168 0.1300873 0.16982566
0.072444536 -0.23519228 -0.6726957
-0.09549621 -0.5500165 -0.6615899
0.09964292 -0.61198133 0.0209634
0.07743207 -0.73749185 0.1744282
0.102401316 -0.078941494 0.010799107
0.04961055 -0.012564792 -0.30165923
-0.022937164 0.04868095 0.22909842
0.07535443 0.6018901 0.45062426
0.009033883 -0.36056548 0.007686123
-0.054015633 0.46351692 0.4538218
0.1822097 0.06038696 -0.06287036
0.07361257 0.6206216 0.42952207
0.21456149 0.13652402 -0.14556018
-0.18261115 0.26290438 -0.2754379
0.0030439305 0.15574971 -0.65602493
-0.02702305 0.6105689 0.54837036
0.112865046 -0.08032638 0.11057846
0.027847113 0.35978684 -0.5000662
-0.016916668 0.58202046 0.3468528
0.12350108 0.0787375 -0.3609981
0.057315994 0.59897447 0.52550757
-0.028163884 0.38395137 -0.4442711
0.00058910355 0.03062814 -0.6690459
0.007338777 0.13634571 -0.5871271
-0.14031622 -0.09185569 0.07303491
-0.08237891 0.4184454 -0.06773106
-0.028961323 0.04675383 0.22459562
0.015111331 -0.34430867 -0.7332809
-0.11392751 0.3424123 -0.43140668
0.10477078 -0.71411335 0.027924573
-0.0932794 -0.7412367 -0.49350986
0.04000887 0.31392398 0.21831338
-0.058192972 0.25739905 -0.59012157
0.12420481 0.0126571525 -0.27543122
0.1907918 0.16440001 -0.4522917
0.11860847 -0.076590925 -0.6077414
0.1796936 0.09880241 -0.024474934
-0.17314084 0.043685485 -0.50688976
0.045041334 0.29104465 -0.571846
-0.045435287 0.35397032 -0.49508002
0.074386306 0.26443553 0.35894027
0.10044493 -0.09960367 -0.48547783
0.17459455 0.120031565 0.11589553
-0.033318263 0.64879644 0.45043746
-0.07452203 0.59280354 0.47929975
-0.1305352 0.33025455 -0.044791296
0.0072744815 0.60390013 0.6376757
-0.09227775 -0.21002935 -0.59178436
-0.08101744 -0.24799556 0.054627232
-0.09405355 0.18494603 0.24862593
-0.049182024 -0.7190661 0.036915302
-0.09441291 0.119258955 -0.6116835
-0.037783038 -0.57940996 0.0024769611
-0.049322862 0.42322528 -0.03200708
0.10384239 0.20443743 0.24092253
0.0595886 0.088587694 0.23622553
0.054218225 0.55516756 0.5558958
-0.07531477 0.15771891 0.29115495
-0.10439483 -0.22255546 0.04746218
0.11529009 0.07305535 0.19489796
-0.048455868 0.42229223 0.008169997
0.11880896 -0.68921775 -0.6347598
-0.06096124 -0.37964392 -0.019139826
0.14569777 -0.07352648 0.052344583
-0.17484114 -0.72226274 -0.54532206
0.039676804 0.09107867 -0.42019168
0.0032369026 0.3921318 -0.4488883
0.08203727 0.30866918 -0.53198487
0.08627553 -0.08427651 0.11509508
-0.06463353 -0.009026163 -0.47237724
0.03106456 -0.27506334 0.027649725
0.0119845215 -0.013366519 0.1750598
-0.1651761 -0.012364779 -0.53678834
-0.1864794 0.28672788 -0.24367703
0.11915303 0.33674133 -0.0021055604
-0.06528017 -0.71738034 -0.5876894
0.045723867 -0.6383281 0.06381498
0.21731642 0.1975344 -0.16329767
-0.10353639 -0.74189574 -0.656227
0.18263103 0.16540344 -0.3807898
0.03430804 -0.2107941 -0.67306876
0.08282418 0.5794962 0.43705577
-0.15747648 -0.008689854 -0.55622864
0.048140716 -0.44334927 0.019836161
0.03419387 -0.15324281 -0.64593184
-0.15303984 0.29654405 -0.4530829
0.17049403 0.29482624 -0.27967808
0.04568886 -0.21920314 0.0026162353
-0.11222498 0.35552925 -0.36128318
0.12394281 -0.056307655 0.108819574
0.2157743 0.21224077 -0.16227645
-0.03760626 -0.6745218 0.047862925
-0.10333666 0.369954 -0.34488466
-0.09634762 0.50038046 -0.2158056
0.16491443 0.1005182 -0.31039637
0.16903389 0.31968355 -0.12935185
0.17004757 0.18138734 0.03178305
0.2142577 0.14355311 -0.20814171
0.057193074 -0.7434974 0.051841024
-0.09293259 -0.09972675 0.0039768843
0.095675126 0.38088617 0.023988064
-0.15071806 0.035587158 -0.26791888
-0.1732629 0.28969228 -0.08340588
0.03220921 0.36802998 0.4970484
0.16474865 0.18575862 -0.325132
0.05293896 0.3931066 0.13087049
-0.08271554 0.051741507 0.19453649
0.011282252 0.26344058 -0.6130072
-0.09424423 -0.20571952 -0.5895763
0.106538065 -0.055073958 0.120593704
-0.17152011 0.14336751 -0.30600998
-0.07650855 -0.73839384 0.0012012818
0.07790877 0.19541752 0.33235478
0.026177965 0.48390308 -0.33879986
0.1884967 0.2204194 -0.047097586
0.05953237 0.41373825 -0.009096116
-0.042265605 0.5343829 0.53244334
-0.19548072 0.26671547 -0.10930918
0.17602915 0.047627997 -0.4781905
-0.075097635 0.347218 -0.4812772
0.13033776 0.34459004 -0.32610637
-0.14896469 0.13037577 0.1611641
0.11288535 0.2251988 -0.57018155
0.17573053 0.04969198 -0.4838978
0.085532665 -0.7424933 -0.66036403
-0.21498878 0.13053013 -0.15382197
0.1600893 0.117054045 -0.38008755
0.059727833 -0.04585951 0.0010702871
-0.07794249 -0.5389053 -0.64602023
-0.11351899 0.40987176 -0.29284567
0.077608414 -0.007962557 -0.2932414
0.024006447 0.5612434 -0.1863852
0.032340955 0.45917472 -0.35028565
-0.20535709 0.10744303 -0.21519537
0.020612514 0.10462712 -0.6049242
0.068135805 0.63859123 0.36081672
0.04127362 -0.12569025 0.06422719
0.11390094 -0.074096136 -0.61320245
0.0659689 0.031849187 -0.3520934
-0.08562324 -0.74358207 -0.64728135
-0.12687722 -0.01486747 -0.16687109
0.031744268 -0.6415283 0.038123887
-0.0456345 -0.03335111 -0.060280327
0.069388285 0.60709286 0.39741516
0.120425925 0.3935484 -0.11709132
0.047126018 0.40089366 0.48043066
-0.0329723 -0.01914505 -0.5327536
0.17767477 0.06599459 -0.45341688
0.089144096 -0.5888449 0.014292575
-0.1106322 -0.7019816 0.03978228
0.16984434 0.19050045 -0.33098608
-0.053327706 0.41811463 -0.013302789
0.03649873 0.06070379 -0.39091128
-0.016527431 -0.3392717 -0.0054368973
0.09361881 -0.59061825 -0.63254684
-0.028833611 -0.38145927 -0.6638736
-0.020944456 0.23826338 -0.62564594
-0.026831482 0.52221173 -0.30950505
0.06933319 -0.17265755 -0.55250555
-0.002103267 -0.010732575 -0.3058498
0.014439931 -0.3612578 -0.6730764
-0.10975981 0.34941462 0.057616442
0.13942757 0.3159427 -0.044983406
-0.10836219 -0.10001595 0.10696982
0.04907251 0.13645683 0.33503193
0.0013364827 0.29206613 -0.589726
0.10691043 0.2713397 0.2094804
0.019164305 0.6276042 0.5403598
-0.11005506 0.023932097 0.16273902
-0.20107159 0.23503155 -0.08799405
-0.17114164 0.17546181 0.12446066
0.14230587 0.19897182 -0.5550973
0.103675924 -0.016442273 -0.010502788
-0.11228814 -0.025349194 -0.14372209
-0.071962096 -0.0882924 -0.49500194
-0.0012676764 0.1289745 -0.5219635
0.16644947 0.21142271 0.13199303
0.076062374 0.4044552 0.048685763
-0.07597603 -0.74520916 -0.55940807
-0.10542611 0.21165338 0.23888507
-0.14203484 -0.032721005 -0.58001894
0.17611462 0.050246775 0.07690109
0.0363592 0.58992034 0.35593855
0.08403262 0.21239711 0.29948375
-0.17717265 0.1352836 -0.39161652
0.16353312 0.19324927 0.021207683
-0.003261237 0.36166435 0.5060828
0.11107303 0.3938295 -0.0946944
0.15850133 0.2044804 -0.53310925
-0.13515069 0.38193032 -0.14583313
-0.12798782 -0.12843817 -0.53673494
0.0368629 -0.24547295 0.036249373
0.040659107 -0.5178408 -0.6795664
-0.015354119 0.2051744 -0.6478781
-0.07057986 -0.64359677 0.06755201
0.05609642 -0.7434914 0.044970356
0.042412896 -0.15962796 0.06689785
-0.12833442 0.4185044 -0.197096
-0.15047482 0.20438899 0.1806353
0.14175619 -0.10648024 0.05018288
0.019245557 0.38879445 -0.44348338
0.08262116 -0.5945054 0.034993764
-0.13458344 -0.68980074 -0.61167115
0.028112713 -0.44481415 -0.7030289
-0.036477014 -0.048865367 -0.1752761
-0.117189124 -0.6586161 0.046233065
-0.18726844 0.15384491 -0.41155532
-0.17783669 0.117249995 -0.50582147
0.1372798 -0.021137608 -0.43678603
0.04732141 -0.6313522 0.06123809
0.16713071 0.021169988 -0.14500268
0.1353571 -0.706121 -0.6222634
-0.02022755 -0.007721275 -0.5594317
0.06319497 0.004575372 -0.46515012
0.032813948 -0.168805 -0.6415569
0.0936439 -0.14510885 -0.52512777
-0.16300435 0.2880216 -0.31245
-0.05984049 -0.5623342 -0.68079466
-0.024829373 0.031032812 0.21279721
0.030978909 -0.4789166 -0.017397467
-0.025296839 0.040339768 0.22018586
0.0200423 -0.09364569 -0.6070477
-0.06480074 -0.5116983 -0.6463505
-0.031026294 -0.3396438 0.034766432
-0.012875257 0.57618064 0.6610389
0.118606 0.34640604 -0.38122723
-0.11158438 0.39890477 -0.30145198
0.04831668 0.5509259 -0.19675958
-0.18227503 0.10506889 -0.4323898
-0.21072863 0.20274529 -0.23527977
0.04086872 0.29496646 -0.57052416
-0.034142733 -0.19802475 -0.6320575
-0.065625496 0.52390933 0.4238128
0.15540668 0.07505926 -0.5614527
-0.12933995 -0.006784729 -0.06939274
0.12605105 0.31759012 0.040137526
0.01368464 0.5714526 -0.22853453
0.064211726 0.12008881 0.26679325
-0.18179357 0.2008376 -0.3564619
-0.09943728 0.23678069 0.23754914
0.18428396 0.29716113 -0.23344521
-0.121625185 -0.014740707 -0.1959645
0.036071956 0.4545621 -0.060949385
0.0765348 -0.012998611 -0.6222611
0.027439807 0.60161793 0.60625
0.108014725 0.35035405 -0.4123669
0.14406082 0.27068692 0.1493056
-0.036991883 0.36015752 -0.49228123
0.124513395 -0.7441909 0.06069781
-0.14723183 0.1345439 -0.34999883
-0.09550952 -0.74551344 0.13227549
-0.032674037 -0.185838 -0.6475691
-0.11208282 -0.7422898 0.11220135
0.057377655 0.56149274 0.6174018
-0.039703675 -0.098340034 -0.63920456
0.0863229 -0.71797174 0.13733344
-0.0731752 0.15889138 -0.61548
-0.07610989 -0.088895805 0.0069815945
0.12637784 -0.1311973 0.07750089
-0.141803 -0.011186367 -0.58063793
-0.09172283 0.6306248 0.32523122
0.04368148 0.32332185 -0.5394186
0.063240275 -0.43289095 -0.0052784523
0.052458286 -0.012884331 -0.30022055
-0.08582864 0.14630888 -0.6115451
-0.10602558 -0.16435608 -0.60972667
0.11646384 -0.14047208 -0.53609174
0.030683683 -0.09030478 -0.6317832
-0.059381444 0.5789993 0.389293
0.09647592 -0.7013427 0.031499647
0.18221854 0.12854607 -0.41270176
0.12838311 0.40323478 -0.15775469
0.018375056 -0.0149720255 0.17223082
0.036539044 -0.35143963 0.034070447
0.07065982 -0.53969264 0.018117523
0.08303936 -0.695355 0.089801095
0.13989593 -0.062656835 0.08469609
-0.15720262 0.12398013 0.14149608
-0.075681075 -0.29110706 -0.6856709
-0.025362069 0.35123256 0.5003162
0.14814825 0.09207907 0.1409803
-0.07992216 0.08087938 -0.39620152
-0.11223321 0.31204006 -0.5032122
-0.052543223 -0.44598606 -0.014932732
0.0025115043 0.47098586 0.50269276
-0.04133853 -0.230204 -0.62229806
-0.17516233 0.19580518 -0.3017249
-0.11313937 -0.7072979 0.09700935
-0.06951442 0.3370385 -0.50531745
-0.13870357 0.38345143 -0.16596398
-0.06565813 0.4148692 0.05164033
-0.098740496 0.4804497 -0.18353711
0.10882226 -0.7102332 -0.64443964
0.091892414 0.31786987 0.17815328
0.042485636 -0.15249652 0.06921406
0.073800765 -0.50530916 -0.687875
0.17288937 0.0042224806 -0.49789995
-0.06555151 0.12533133 0.27146983
-0.15214504 -0.05148798 -0.5593529
-0.05914654 -0.7263428 0.0072437837
-0.05353653 0.34427974 0.47566345
0.10801788 0.2441297 0.22714464
0.06290098 0.11785671 0.26710838
-0.036649264 0.11945846 0.32452017
0.044173475 -0.039851915 -0.0824526
-0.027586844 0.0719503 0.25436288
-0.09545116 -0.10833389 -0.63272595
-0.09824654 0.007536639 -0.61324716
0.017562894 -0.36876038 -0.6722573
-0.057229765 0.56311387 0.590802
0.1689133 0.028204128 -0.1745899
0.13707227 -0.74610186 0.13255374
0.1436364 0.016512766 -0.0418616
0.058581665 0.5019356 0.48746243
0.014970906 -0.3455174 0.011870814
0.08687175 -0.69604295 0.031178202
-0.16059989 0.021872183 -0.19880368
-0.05584295 0.29378313 -0.5634214
0.05768533 0.38711414 -0.39309198
-0.11221901 0.0884685 -0.38970545
0.07787621 -0.035873253 -0.19467752
-0.15654233 -0.74015373 -0.5991751
0.15877959 -0.745378 -0.58558816
0.215367 0.14901921 -0.13481154
-0.082921736 -0.20672601 -0.57888526
0.13603906 0.29418185 0.027544798
-0.096845105 0.3390285 0.13719258
0.07024832 -0.3845523 -0.7027119
-0.06149734 -0.74375606 0.056733627
-0.029931003 -0.032070734 -0.0007465518
0.07935895 -0.7165158 0.13820362
0.047162693 0.2820291 0.24755122
-0.012047031 0.32586485 0.34386674
0.06849148 0.61374307 0.34961873
-0.047516733 -0.050402675 -0.62750816
0.04706236 0.2470913 0.4504171
0.049777452 -0.3639554 -0.022961123
-0.074238844 -0.1938166 0.0759644
0.002832444 -0.38991567 0.011698989
-0.13006239 -0.032038737 -0.44032013
0.07766161 -0.74384004 0.053635307
-0.07508303 -0.3015747 -0.69189936
-0.17932211 0.13424106 -0.01763637
0.083534844 0.08166176 -0.39509168
0.055602316 0.0005269303 0.16542631
-0.15580454 0.16867119 0.16064882
0.014387119 0.33968586 0.5035233
0.11192927 0.29696044 0.17773318
0.15378998 0.023253728 -0.5624339
-0.03709704 -0.16754518 -0.65600353
0.013788577 0.535654 0.67516834
-0.10195025 -0.73019695 0.11432629
0.052073367 -0.73130834 0.12668033
0.033755694 0.2802963 0.2781347
0.031088175 0.5916849 0.647625
-0.16909611 0.19251516 -0.5203867
0.06563089 0.31692898 0.40414572
0.05398009 -0.39235875 0.03144804
-0.0457407 0.09820174 -0.42616987
-0.15303117 -0.74581903 -0.53461164
0.05219189 -0.024493327 -0.62301844
-0.113381214 -0.024812445 -0.13410123
-0.18082392 0.163117 -0.018163161
-0.20079818 0.18750195 -0.2607941
0.086454034 -0.15408584 -0.0074387845
-0.2115755 0.22937527 -0.21015032
0.1717625 0.11062845 0.0070383586
-0.056493722 -0.20061748 0.07035691
-0.08288064 0.567109 0.4712118
0.019345628 0.23611829 -0.62867594
0.17372334 0.2724415 -0.28992504
0.1141473 0.049415797 -0.34012538
0.17063573 0.28439194 -0.069760956
0.104531884 -0.19243272 0.0021924546
-0.07688979 -0.18407013 -0.5582181
-0.16314545 0.04812995 0.015016181
-0.10056874 -0.07512093 0.010864147
0.029345544 0.6514276 0.50483435
-0.07699188 0.24402322 0.35303375
0.07751595 0.113698155 -0.61951196
-0.06377916 -0.33892938 -0.004688819
0.15436348 0.046929017 0.10899532
-0.085851274 -0.18269208 0.07955907
0.028873269 0.31616127 -0.55602556
-0.043945197 -0.50906193 -0.014648547
-0.03153634 0.42025104 -0.3719041
0.04705079 -0.047037467 -0.13107905
-0.14126472 0.3797264 -0.2445906
0.022346662 -0.03793659 -0.56138897
-0.07038939 0.2847332 0.3975059
0.11232705 0.024153622 -0.31205094
-0.08247063 -0.7463261 0.10540169
0.050749395 -0.7305462 0.10771916
0.024612453 0.4860629 -0.08258019
-0.058444034 -0.64433694 0.0056881146
-0.026720196 0.111928806 -0.47750548
-0.056937363 -0.35297036 -0.7187479
-0.13728735 -0.03633253 -0.44659266
0.18442586 0.11782516 0.03590822
-0.18697676 0.1609452 -0.47409627
0.047257382 -0.16650228 0.011707461
0.02071565 -0.09618896 -0.6052755
-0.06413892 0.27135038 0.319671
0.023082353 -0.086154364 -0.622706
-0.06259256 0.083526924 0.22628535
0.12408391 -0.15403786 0.0227527
0.11186602 -0.19842657 0.0540598
-0.012614186 0.6185689 0.60531604
-0.12926534 0.043109007 -0.4040825
0.12833242 -0.02761413 0.026207143
0.09722149 -0.096305914 -0.6295295
-0.0842315 -0.07048926 0.11838898
-0.18728065 0.24130198 -0.057056207
-0.028151533 0.07334409 -0.60949826
0.145846 -0.014769387 0.06528912
-0.14597666 0.1460597 0.18232557
0.15193722 0.13114353 -0.33925265
0.06517575 0.061593246 -0.6231384
0.16028479 0.2538923 -0.49727088
0.057107877 -0.4937944 -0.008852844
-0.13566178 -0.06092568 0.09307854
-0.06919061 0.27495375 0.34726676
0.049152274 0.43994904 0.3935063
-0.11628513 -0.7458012 -0.5004053
-0.11632892 0.41165572 -0.13095604
0.018138086 -0.028831728 -0.5701096
-0.007363273 0.124840386 -0.55211157
0.05219746 -0.26740792 -0.0163869
0.1029635 0.3733233 -0.042287588
0.058820855 -0.38277277 0.026806558
-0.016752297 -0.373042 -0.67456824
-0.023806028 0.031803906 -0.5391704
0.083727956 0.6208994 0.34520173
-0.05235807 -0.49426022 0.023424413
-0.038395263 -0.13928013 -0.6489828
-0.07259921 0.020582998 0.17625487
0.03898483 0.17445558 -0.6212839
-0.055326052 -0.20552707 -0.0056066364
0.01665474 -0.46440357 0.004081528
0.21413448 0.16151865 -0.11768874
-0.07342037 -0.6668165 -0.5885954
0.16562499 0.23499142 -0.012985077
0.06771714 0.12625043 -0.62223476
0.080758415 0.35832393 -0.44706577
0.018595152 0.21705468 -0.6351333
-0.0064774486 0.46955863 0.5022391
-0.14425117 5.0105085e-05 0.084544
-0.09199825 -0.57926697 -0.6747905
0.18991874 0.063973986 -0.092270084
0.057417292 0.5455955 0.6175221
-0.053893395 0.23404564 0.42976263
0.014763891 -0.3398536 0.0044459393
0.090276286 0.36869982 0.08689075
-0.19797187 0.088894315 -0.08419656
-0.08758189 0.44608998 -0.10922481
-0.05679154 -0.484517 -0.69714373
0.011976738 0.5168516 0.65737605
-0.16444276 0.19726375 -0.52548087
-0.03174211 -0.4614136 -0.6980027
0.08694466 -0.13319728 -0.0043561207
0.0476365 0.42602804 0.38968724
0.03690925 -0.3208815 -0.65140957
0.12593363 0.38290554 -0.11675319
0.18533906 0.17019337 -0.3905023
0.062231008 0.105519496 0.24954726
0.11097257 -0.033902857 0.12316645
-0.123722084 0.09555119 -0.37916496
0.16375847 0.043902952 0.09422684
0.14370358 0.19935898 0.1995151
0.07403775 -0.68474144 -0.64436805
-0.0013239287 0.36922574 0.50635403
-0.06528579 0.006311923 -0.32280165
-0.073583975 0.5184008 0.44340995
0.11966764 -0.13509336 -0.53334486
-0.09340528 -0.21630459 -0.6325771
-0.14933252 0.12814331 -0.5662113
0.10447187 -0.0026244374 -0.4266349
0.15269592 0.17473006 0.17419368
-0.08808789 0.022374796 0.17245379
0.14071305 0.1889004 -0.5607589
-0.04880096 -0.563121 -0.67346865
0.18318339 0.12106378 0.032168634
0.15248485 0.26009467 0.07186746
0.11163914 0.0061951797 -0.6084489
-0.044832848 0.0741601 -0.47783795
-0.076642856 0.38198492 -0.3744762
-0.02436983 0.43806195 -0.36579806
-0.07320518 0.25801456 0.37734538
0.04647191 0.039700568 -0.48918742
0.0284772 0.30905485 0.49389252
-0.018243734 0.5680198 -0.20792611
-0.10224729 0.3463363 -0.4472162
-0.030922506 -0.04590117 -0.11840718
-0.12431774 -0.66836756 -0.6493618
-0.17100626 0.23544809 -0.48509413
-0.012766371 0.115478404 -0.534585
-0.018684236 0.6519754 0.48935053
-0.15035388 0.024306767 0.09706791
-0.036385514 0.010517384 -0.61293393
0.07842684 -0.5238996 -0.65125275
0.18235601 0.17702113 -0.37006047
-0.030977905 -0.02731583 -0.02744495
-0.2053629 0.1785304 -0.071374595
0.017981099 0.6161851 0.3472368
-0.18569253 0.116926834 -0.463223
-0.014384375 0.10949307 -0.532091
0.042808186 -0.64718807 0.06679987
0.1645582 0.24706198 0.109115325
-0.062117465 -0.00030441812 -0.47298884
-0.088810064 0.5147061 -0.22562508
-0.026782425 0.10574925 -0.50050014
-0.09720142 -0.16077705 -0.5420368
-0.08270337 0.1637853 0.26897377
0.09737996 0.40122572 -0.32030043
-0.054049563 0.10039147 -0.44523838
-0.14369349 0.30512807 -0.46720606
-0.11353624 0.08254 -0.37579152
-0.17577428 0.2883283 -0.2731054
-0.028360287 0.56392086 -0.25667506
0.07277714 -0.45382866 -0.66499263
-0.14384541 -0.72976905 0.1466992
0.026286703 -0.5340093 0.0053637153
0.07436586 0.018982256 -0.43970096
0.088633485 0.36648262 -0.40063763
0.06631887 0.28035104 0.34396446
0.082549125 -0.06938837 -0.47549164
0.0023526063 0.006868502 -0.32990798
-0.116898626 0.3554378 -0.34163207
-0.089181505 0.32596582 0.17166671
0.046185542 -0.18425621 0.06704808
-0.16417813 0.33251277 -0.24050188
-0.14517 0.017067987 0.022071296
-0.14980513 0.16880716 -0.5576237
0.115860194 -0.12190834 -0.6011764
0.02429169 -0.11241144 -0.6134762
0.043637298 -0.15670383 -0.5809166
0.15481566 -0.0070855045 -0.44114783
0.05619716 0.53910506 -0.1783175
-0.04729675 -0.7123763 0.06592626
-0.16366349 0.06014632 -0.27816546
-0.16900538 -0.7426769 0.13755186
-0.14019312 0.021966167 -0.5822124
0.16793245 0.22659074 0.07882981
0.17457324 0.17323174 0.037947424
0.12707023 0.3372905 -0.38961986
-0.17137413 0.16799042 -0.30795208
0.04778796 0.45028406 -0.3457408
-0.09695468 -0.1802017 -0.62416315
-0.1446263 0.074772984 -0.32654595
-0.02007545 0.39747974 -0.41556603
0.15780312 0.24195181 0.06473276
-0.07178104 -0.036876425 -0.02984131
-0.07133887 0.034461733 -0.43956283
-0.041794494 0.4245006 -0.01749989
0.07438048 0.61286426 0.484994
-0.061221544 -0.26790512 -0.014835384
0.025062967 0.3669204 0.36662036
0.09608918 0.3469134 0.1184018
-0.04323695 -0.401332 -0.72210497
0.047262974 0.5254245 0.5172965
-0.12725915 -0.100192785 -0.5912697
-0.018639034 -0.05445732 -0.5805108
-0.13258456 0.22966754 -0.5505406
-0.12857035 -0.016627427 0.11234751
-0.07039549 -0.26358294 -0.013780397
0.17063455 0.20655394 -0.32159188
-0.03820553 -0.59697425 0.0444279
0.057715166 -0.59831804 -0.0017422019
-0.06735927 0.4329789 -0.33852854
-0.033978548 0.17071985 -0.6190957
-0.10802757 0.22357611 0.23511064
0.056033 0.28742477 0.33123526
-0.027411213 -0.11687029 -0.5979273
-0.03494821 0.506498 0.36695483
-0.015777001 0.10169415 -0.5317194
0.07517974 0.6069486 0.4973004
-0.17479111 0.2676731 -0.28995493
-0.077846006 -0.7437178 -0.6130329
0.13812016 0.29355934 0.015557425
0.07004975 -0.012920266 0.13878483
-0.15802285 0.28790823 -0.44930497
-0.21109731 0.13376102 -0.11282297
-0.11180853 -0.13891803 -0.52932084
0.1818836 0.21289489 -0.35376757
-0.17549533 0.24561308 -0.4511732
-0.17649898 0.2935111 -0.09756505
0.06656278 0.30724975 0.4233457
0.041615963 0.6344713 0.37536567
0.024480453 0.6041779 0.34739885
0.021448309 -0.38049018 -0.6716471
0.015759991 0.44108018 -0.03322944
-0.08140344 0.6201071 0.37086588
-0.05221392 0.5753665 0.61444396
-0.12926622 -0.010249762 -0.1882021
0.10990186 0.26057142 -0.55347013
-0.028314557 0.44821426 -0.35786852
0.007920114 0.10168046 -0.4412434
0.16487369 0.20631616 0.04336856
-0.10764839 -0.027415048 -0.14493592
0.12606059 0.31212515 -0.48691085
-0.07801689 -0.02534163 -0.24863726
-0.019106977 0.47768083 -0.07162263
0.084480375 -0.74372417 0.035941944
0.17843808 0.17448744 0.09441554
-0.024495997 -0.35387632 -0.66073453
-0.07009054 0.48243293 -0.12129712
0.121483326 0.3881841 -0.11256069
-0.028200164 -0.41541123 -0.03452173
-0.12391817 0.29921272 0.15345465
0.079919524 0.5361424 0.45242652
0.07063159 0.28046417 0.36429727
0.09733545 -0.6177622 -0.66997486
0.06777398 0.1432114 0.2983712
-0.11066846 -0.06883046 -0.46222967
0.03964101 -0.30338785 -0.6477884
0.063157365 -0.23512018 0.062341865
0.068706565 0.01006808 -0.45166925
-0.0454545 -0.43148768 0.027653478
0.119011514 -0.0027735948 0.00030305455
0.0465869 -0.04051642 0.0020584252
0.05137809 0.52994347 0.5186727
-0.021752438 0.3211113 -0.5547738
0.08592399 -0.63039607 -0.6053831
-0.0046198484 0.6480018 0.4041486
0.09170015 0.37880015 0.061184127
0.058563307 0.54789126 -0.21105093
-0.17587888 0.11145831 -0.51199234
-0.16213585 -0.03060664 -0.54039043
0.03384244 -0.48913148 -0.6751698
-0.13486876 0.33537167 -0.3400726
0.16989262 0.20941368 -0.31096643
0.16396126 0.10101369 0.12608117
-0.012750202 0.31617427 0.22663578
-0.16919349 0.066869974 0.011205758
-0.054764334 -0.7375377 -0.60057867
0.019733967 -0.03630643 -0.5679843
-0.17540486 0.03326124 -0.4597943
0.14786097 0.1187291 0.15385258
-0.10194756 -0.14854307 -0.6185084
-0.07365521 0.4083729 0.036271032
0.10512712 -0.06303288 -0.61874175
-0.023215195 -0.03849602 0.031602804
-0.042834338 -0.1560181 -0.5830857
0.17366529 0.25166517 -0.44307694
-0.16938566 0.024709152 -0.109433085
0.105594106 -0.23234569 0.033328447
-0.12248116 0.27005613 -0.5347947
-0.15155046 0.34718645 -0.2668227
0.0431221 0.3643549 0.4885077
0.019670054 -0.029206604 -0.052357834
0.037912663 -0.00565505 -0.31424892
-0.07661196 0.095936894 -0.61993474
0.0796636 -0.7436736 -0.6165061
-0.035452988 -0.44202936 0.02559923
0.0997845 0.38310683 -0.331458
0.07752448 0.2317252 0.35758317
0.06930108 -0.65423256 0.004803366
-0.022855738 -0.10220835 -0.60121775
-0.1349938 -0.017317891 0.10300987
0.07545428 -0.52263427 -0.6491683
-0.048860457 0.07836551 -0.46783108
-0.040872086 -0.04215648 0.013867765
0.033770047 -0.5474169 -0.0034036415
-0.051680334 -0.26180232 -0.013232216
0.17394522 0.032598685 -0.4990836
-0.08180621 0.54410034 0.47539973
-0.07759926 -0.7303814 -0.52208745
0.064658076 0.50002134 0.46238717
0.032144442 -0.15337464 -0.63383365
0.08103459 -0.5318847 -0.6822065
-0.058429293 0.30737388 0.21537322
-0.064761676 0.2730496 0.4286822
0.047290586 0.0013367462 -0.3230135
-0.094335906 -0.68690133 0.07913819
0.21470925 0.13656977 -0.14709547
-0.06089011 -0.3536303 0.017072158
0.00023715539 -0.06700964 -0.66706717
-0.074362 -0.5711858 0.0015665205
-0.17412922 0.2095185 0.08850173
-0.016118925 -0.4435717 -0.016941007
-0.057371326 0.3511536 -0.4888008
-0.081423774 -0.32421026 -0.69638115
-0.008653232 0.18932138 -0.66302276
-0.026832392 0.38446632 -0.44481596
-0.06453167 0.3350187 0.41450477
-0.08254419 0.26655164 0.23597129
0.11535355 0.42358968 -0.14598359
0.06277433 -0.1707406 -0.6666242
0.060804974 0.6374527 0.3499146
0.039430343 -0.19239213 0.038222756
0.05203129 -0.12281486 -0.54243475
-0.09796424 0.16755144 -0.6000186
0.115939796 -0.1769901 0.014743987
-0.09566545 -0.71219355 -0.6520317
-0.07369359 -0.3473428 -0.7061126
0.080275714 -0.48960587 -0.6708294
-0.17966451 0.09265178 0.022563288
-0.13652842 -0.7423267 -0.54704183
-0.11722039 -0.002191812 -0.013847226
0.20291895 0.237016 -0.09587175
0.029442983 -0.26944184 -0.6848155
-0.039855618 0.3365854 -0.52494794
-0.11147642 -0.7448774 0.05770671
0.117950484 -0.10712758 -0.49774632
0.06535365 0.5416368 0.5177635
0.10835221 0.42971808 -0.29154447
0.10529856 0.4371473 -0.29172084
-0.2119656 0.15582755 -0.10570436
-0.03916073 0.5171713 0.36980635
0.09525178 -0.61910456 0.039005235
0.02193568 -0.4958071 0.0097783515
-0.08216061 -0.26178458 -0.66005665
0.1491988 0.31736785 -0.32356328
0.10036889 -0.7300189 0.13546793
-0.079419814 -0.09846536 -0.6387112
-0.1574109 0.34503993 -0.24141496
0.1571841 0.26298362 0.09379601
-0.14882502 -0.08701759 -0.51417094
-0.09248079 -0.030789005 -0.0056239893
0.1256984 0.3298557 -0.44534186
-0.086104214 0.044076614 0.18885526
-0.13894548 -0.09934838 -0.57001156
0.069958806 -0.7065488 -0.62011164
-0.14885494 0.27495068 0.08532425
-0.08509773 0.2760034 0.22571644
0.14593862 -0.026986558 0.059912153
0.0971352 -0.74675274 -0.5534154
-0.05379027 0.42057827 -0.033078365
0.1766168 0.3149973 -0.20006491
0.14826284 0.024109868 0.09949439
-0.05231814 0.19688018 0.40074062
0.08191806 -0.2449107 -0.65910536
-0.10385261 0.34957543 -0.43055078
-0.049081597 -0.042056374 -0.098722555
0.04838218 -0.29786858 -0.64254296
0.11880574 -0.741338 -0.5558065
0.11983879 0.44502795 -0.19966327
0.07560108 -0.20314737 -0.6670812
0.0701349 -0.16299082 -0.6613352
-0.12977694 0.39270216 -0.14557223
0.023654269 0.30227757 0.32143232
-0.21891534 0.17129998 -0.17623553
-0.14517444 0.24828331 -0.52591246
0.16367634 -0.74599886 0.1322456
0.084148526 0.21629699 0.29403165
-0.0607946 0.004731166 -0.62034595
0.034826346 0.37448248 -0.46298787
0.05273519 -0.5954139 -0.6666772
-0.21655823 0.15844794 -0.14039299
-0.069617525 0.4770962 -0.11402371
0.08113069 -0.35407555 -0.68256223
0.2064832 0.2296491 -0.1036884
0.028570134 0.5663132 -0.22858511
0.09595519 0.37720385 0.046738014
0.055703104 -0.19397 -0.5783207
-0.164672 0.31135818 -0.09586633
-0.11176273 -0.011074693 -0.42730352
-0.097470276 0.49045852 -0.2605019
-0.07508383 0.25685063 0.25368017
-0.03615873 0.10933515 -0.4690575
0.13447316 0.3978552 -0.24681531
-0.13994576 -0.7203355 -0.5531798
-0.13458762 -0.010136274 -0.15914395
0.005058941 0.063319825 -0.6621538
0.024472233 0.43483105 -0.030521613
0.075424984 -0.6959565 -0.619113
-0.080473736 -0.4991092 -0.6794259
0.17724295 0.10773584 -0.41694394
0.21676187 0.20504427 -0.17020924
0.140265 -0.08632188 0.075128995
0.06873765 0.04748313 -0.4368741
0.046533696 0.37390286 -0.4458543
0.037669413 0.43557805 0.06519906
0.119333506 -0.61495715 -0.65048355
0.04553918 0.54766166 0.3744259
-0.06018379 -0.7334221 0.001474998
-0.020227177 0.5595978 -0.270969
-0.13317476 0.394811 -0.26054966
-0.04751327 0.015402758 -0.49285108
0.01454771 -0.027689835 -0.2788773
0.16554508 -0.014567709 -0.46233073
-0.13829257 0.28891152 0.07197676
-0.15244159 -0.06668971 -0.4907569
0.18670602 0.20849513 -0.44154516
0.018523803 0.65049034 0.46050426
-0.15002477 0.11141835 -0.33580533
0.0055362554 0.52417016 0.6469503
-0.0731157 -0.5167714 -0.64890575
0.1548217 0.015308346 0.042894874
0.14917506 0.08693355 -0.3302596
0.07516983 -0.12502456 -0.5141929
-0.16705593 0.2726506 -0.3493528
0.14130884 0.33505163 -0.07857834
0.13465662 0.3215953 -0.44751418
0.013203573 0.52206916 0.6465833
0.04731708 -0.6524913 -0.61186785
-0.05900291 0.34046286 -0.507475
-0.15373708 0.031283535 -0.2505989
-0.08067491 -0.045973152 -0.4659328
-0.0005401563 -0.048150927 -0.13102335
-0.094923 -0.1711255 0.0819712
0.10174703 -0.028035589 -0.17778015
-0.017848244 0.34627652 -0.52816695
0.14997804 0.062743686 -0.40441176
0.023030713 0.17814904 0.4187016
0.1113895 0.1339273 0.22579187
0.05858589 -0.71018606 0.028643278
0.2179521 0.16008605 -0.19035515
0.02933965 -0.59818524 0.03242214
-0.09250927 -0.67017686 -0.5891302
0.08998458 -0.23689511 -0.6236029
-0.18152544 0.13725384 0.103734955
-0.08840031 -0.24383233 -0.631694
-0.022811102 0.51012737 0.62006587
0.09099679 -0.21385707 -0.008100925
-0.13741969 0.38212907 -0.25954404
0.18399744 -0.7354245 -0.5469058
0.022606231 0.65194786 0.5096153
0.1754836 0.30779374 -0.24841107
-0.11183369 -0.13808931 0.088686705
0.1424045 -0.06499761 -0.47412607
0.017620983 0.059448887 -0.5454932
0.13908736 0.36481494 -0.123943046
-0.026890159 -0.04958742 -0.18130124
0.0013128185 -0.005149433 -0.6683278
-0.097617984 0.026394764 -0.32928783
-0.16711028 -0.7429631 0.12602234
0.057588317 0.5466702 0.6177381
-0.07595373 -0.34047616 -0.6681083
0.0006870663 0.29958493 0.3119805
0.060923416 0.4136335 -0.030006556
0.03868493 0.5220719 0.6093893
-0.025146997 -0.06357206 -0.5662338
-0.18446098 0.115244664 0.03808707
0.1794385 0.15362257 -0.37904966
0.068210445 -0.35520613 -0.7109147
-0.07100388 0.5085536 -0.28799096
0.09875112 -0.211832 -0.6117362
0.07336184 -0.39590123 -0.67141914
0.1219549 -0.74427485 0.059244588
0.056421127 0.0757671 -0.45103297
-0.045933295 -0.063958384 0.0307661
-0.16834098 0.3304271 -0.20078813
-0.050618842 0.47314882 0.3931965
0.006438999 0.23727971 -0.638484
0.013234919 0.44289798 0.0812975
-0.074050404 0.17272659 0.3168031
0.08694861 0.18937424 0.26649374
0.15109244 0.12485714 -0.3646601
-0.20358805 0.08903555 -0.13750382
-0.041829288 -0.202778 -0.6082201
-0.014222155 0.5150534 0.53140366
-0.11669717 0.06437897 0.18820624
-0.08215683 -0.63096374 0.05740108
-0.20328718 0.099685326 -0.09849663
0.026645837 -0.2980549 0.024115505
0.15035076 0.012119549 -0.20303263
0.016849604 0.37206072 0.5038451
-0.021693792 0.02032954 0.20542274
0.09828293 -0.57267517 -0.6508321
0.05470225 0.5727686 0.5598128
-0.10317386 0.34462678 0.10328456
-0.051224746 -0.6865077 0.06535248
-0.16192788 0.12109449 -0.37844488
-0.040149756 -0.5548403 -0.6511113
-0.071775295 -0.18045609 -0.00978421
-0.012516969 0.29058826 -0.58789635
-0.08741625 0.21505384 0.25603175
-0.14020695 0.35251656 -0.28821656
-0.054209217 -0.61285186 -0.6620109
0.00749281 0.07214391 -0.6728297
-0.12350098 0.4155092 -0.2675061
0.107688986 0.022110771 0.16291897
-0.011754343 0.4225494 0.12936506
-0.028280184 0.049557943 -0.37852892
-0.10361769 -0.12663262 0.0017111326
-0.056149587 0.5188755 0.39803356
-0.04240873 -0.55693316 -0.64556456
0.053514503 -0.7240305 0.110362165
-0.0046427697 0.5419916 0.67566514
-0.21051921 0.1910736 -0.09711451
0.05239376 -0.74214345 0.08575871
0.04997517 -0.020651659 -0.50122374
-0.047254607 0.090303585 -0.62173504
0.20189264 0.25491264 -0.11423385
-0.056397893 -0.45912492 -0.0072981045
0.09409935 0.45497066 -0.29755777
0.049153656 -0.19307438 0.06890877
0.17683938 0.19020101 0.0945101
-0.059336845 0.5337471 -0.27622125
0.05560468 0.5699704 0.5672351
0.018871607 -0.08571507 -0.6107991
0.13922612 -0.084459186 -0.5763688
-0.041711926 -0.11320159 0.053432852
0.077160664 0.25109473 0.35367498
-0.14185368 0.055177595 -0.31411397
0.063298374 -0.3622977 0.012759215
0.17646638 0.060200565 -0.44843805
-0.046876237 0.09432298 0.26468977
0.16846108 0.16977625 0.0007374708
-0.095837116 0.12595731 0.23081605
0.12418509 -0.007966343 0.11892319
-0.09940118 -0.74661845 -0.55012345
-0.04707609 0.13316935 0.3316907
0.1248332 -0.14228368 -0.5671398
-0.07894235 0.20958051 -0.5972981
-0.029089333 -0.5811873 0.018936142
0.03146427 0.11852654 0.32869956
-0.16128018 0.06422283 -0.4135028
-0.06580131 0.37177345 0.14340283
-0.06270312 0.044283412 -0.36568755
-0.07535912 0.057014473 -0.42382047
-0.20552665 0.09370991 -0.14566264
0.12126833 0.3105657 0.13960496
0.034855954 -0.0040428545 -0.3170021
0.055541992 -0.034501802 -0.052923977
0.20038967 0.09137819 -0.1025957
-0.11575531 0.3386288 -0.4415594
-0.015192408 -0.37758946 -0.681678
0.046032246 0.54596066 -0.17682813
0.015286038 0.651355 0.47476408
-0.090999596 -0.6615488 -0.5910302
-0.117771566 -0.11843366 -0.5994208
0.20169625 0.26518756 -0.20525505
0.17510653 0.2526966 -0.42806306
0.058707193 0.40323752 0.103184745
0.032103963 -0.277032 0.0013089312
-0.16133364 -0.02303484 -0.5445544
0.04210003 -0.6714729 0.068374015
0.041754555 0.16340841 -0.6225816
-0.113592856 0.01927066 -0.3038379
0.010028401 0.0818588 0.2811829
0.17247672 0.16341463 0.12282699
0.09317629 -0.7002447 0.09355349
-0.16381738 0.07714174 -0.5446774
-0.14368467 0.28398043 0.004955959
0.012773059 -0.04830338 -0.20825471
0.017490607 -0.33984932 -0.7097989
-0.012636861 -0.4414436 0.00876185
0.08800986 0.64209014 0.33365342
-0.18301871 0.056534175 -0.07426644
0.13119224 -0.7397875 0.058594942
0.056238387 0.08291408 -0.44842008
-0.17826726 0.13525914 -0.39584127
0.14667864 0.028304944 0.10466631
-0.042027183 0.519423 0.6195406
0.04196923 -0.106814474 0.053296003
0.21651112 0.19712676 -0.1448684
-0.07481302 -0.74391556 -0.59741783
0.01959438 -0.34663326 -0.7161965
0.03791302 -0.25359875 0.0010907773
0.0781433 -0.5985241 -0.675891
0.21353985 0.22197838 -0.20513226
-0.009096501 0.44361827 0.056943197
0.0566094 -0.0013800405 -0.6215141
0.184383 0.17961028 -0.28893116
0.0825209 -0.074971095 0.010603981
-0.049353145 -0.4619591 -0.6532839
-0.08342696 0.36176088 0.1242798
0.1875657 0.18281409 -0.28384817
-0.11088048 -0.09163519 -0.47949
-0.030979779 0.419767 0.37398788
-0.08729197 0.039610647 -0.34934452
0.075147964 0.2539624 0.31909186
-0.015185095 0.40188375 0.1527139
-0.051312476 -0.64971447 0.07055772
-0.05155567 0.34909162 -0.49789283
-0.17689581 0.1171082 -0.5089482
0.2036163 0.26009187 -0.20457484
0.19927444 0.1255521 -0.064594194
0.110524505 -0.74551326 -0.5526279
0.1353995 -0.7145514 0.09963641
-0.036581796 0.06352455 -0.3927634
-0.107651666 -0.22303459 0.03912888
0.028310275 -0.12236695 -0.59938097
-0.17584519 0.17687343 0.04689012
-0.13368593 0.3594816 -0.29253486
-0.11118902 -0.00462469 -0.60804385
-0.13447188 -0.72545964 0.13509874
0.048391443 -0.020957315 -0.62176603
-0.14585839 0.25883985 0.04375298
0.20713769 0.23478185 -0.113461085
-0.15704666 0.026968911 -0.4240659
0.19186455 0.06386156 -0.12646918
-0.15896308 0.022652801 -0.20837416
-0.101898484 -0.05558225 0.121719636
-0.19608489 0.2245497 -0.06534714
0.1724949 0.22957703 -0.48573917
0.07947993 0.19374609 -0.6021401
-0.06275369 -0.37369496 0.019392453
0.17388736 0.17074019 -0.0074385027
0.1637127 0.017347317 -0.10906875
-0.07282908 -0.6648881 0.077621706
-0.03888876 0.11096604 0.30774644
-0.20598927 0.22785608 -0.2405648
-0.11865412 -0.689577 0.06421736
-0.19024877 0.1743981 -0.43024853
-0.06646171 0.024583606 -0.4540269
-0.058664087 0.07484072 -0.39788717
-0.065210596 -0.17800942 -0.008747601
0.14605518 0.31324452 -0.42808038
-0.1285585 0.0061258725 -0.2518656
-0.0048072804 -0.025028137 -0.65739346
-0.027712408 0.55308735 -0.1694975
-0.109211326 -0.7452484 -0.49285823
-0.085146084 0.5201381 -0.2254745
-0.062068805 0.33872604 0.18904142
0.103707574 0.4359143 -0.29572728
0.12856321 -0.16114442 0.041374076
0.0668493 0.62662274 0.33575732
0.124319114 -0.008827679 -0.065803446
0.0037135438 0.5628505 0.6681148
-0.18820521 0.19493206 -0.44556603
-0.07575435 0.6388216 0.35652402
-0.06899333 -0.55986416 -0.68289
-0.106338054 0.09999032 0.2142842
0.041041534 -0.4677599 -0.7010331
0.026006393 -0.30410147 -0.72798365
-0.013174383 0.41785166 0.50251746
0.03143738 -0.44087666 -0.7080581
0.13854028 0.31120998 -0.46504182
0.04208585 -0.4647083 -0.019120216
-0.13766946 0.03684775 -0.29698294
0.057688083 -0.33912995 -0.012632237
0.11228 0.35867715 -0.043220364
-0.10565629 -0.17306912 -0.5655798
-0.15277398 0.34426832 -0.26736358
-0.030674418 -0.6186166 0.033976026
0.08482506 -0.7257333 -0.6644997
0.1671591 -0.036383357 -0.5044706
-0.030569172 -0.3021227 0.031678375
0.033650994 0.5249728 0.6441901
